ply
format ascii 1.0
comment Author: CloudCompare (TELECOM PARISTECH/EDF R&D)
obj_info Generated by CloudCompare!
element vertex 1706
property float x
property float y
property float z
end_header
1921.18 -5629.47 -1.39268e-014 
2346.5 -6046.73 -1.2609e-014 
1598.23 -6091.08 -9.27607e-015 
927.526 -5813.87 -8.71644e-015 
672.655 -6171.05 -4.9286e-015 
592.116 -5836.1 -7.23245e-015 
1624.76 -5346.01 -1.48912e-014 
364.589 -5858.22 -6.16653e-015 
1072.55 -6145.8 -6.74478e-015 
2038.43 -5530.66 -1.50877e-014 
2316.9 -5844.2 -1.39258e-014 
318.822 -5596.49 -8.0822e-015 
126.165 -6436.22 12 
1269.39 -5567.91 -1.19054e-014 
205.878 -6419 12 
642.207 -6451.86 12 
2334.52 -5443.02 -1.68236e-014 
12 -5965.07 117 
825.019 -6419 12 
1890.12 -5827.63 -22 
866.765 -6144.47 -5.92654e-015 
1963.69 -5780.95 -1.29896e-014 
115.181 -6126.34 -3.02409e-015 
765.795 -5724.47 -8.77251e-015 
548.254 -5863.53 -6.84337e-015 
2311.87 -5693.48 20 
2442 -6316.56 127.934 
745.282 -5197 89.8555 
1574.75 -6123.64 -8.9424e-015 
1671.59 -5653.93 -1.28078e-014 
1089.64 -5330.02 -1.30398e-014 
2442 -5542.41 133.943 
2154.42 -5751.13 -22 
1619.93 -5531.3 -1.35058e-014 
281.344 -5551.23 -8.2977e-015 
2411.3 -5499.2 -22 
1273.5 -6213.64 -7.05121e-015 
1998.37 -5857.49 -1.25797e-014 
860.635 -5573.02 -1.03121e-014 
478.549 -5960.6 -5.79349e-015 
405.995 -5699.7 -7.59749e-015 
1001.56 -5694.17 20 
201.19 -6024.17 -4.19894e-015 
1608.39 -5230.35 149.86 
982.563 -5701.18 -9.80117e-015 
1461.65 -5904.75 -1.0124e-014 
1335.41 -6451.86 12 
680.07 -5619.9 -9.26298e-015 
1173.4 -5231 132.545 
1464.77 -5723.72 -1.14798e-014 
369.073 -5933.53 -5.58125e-015 
249.758 -5332.88 -9.92602e-015 
1529.28 -6070.85 -9.15614e-015 
2210.57 -5677.77 -1.4698e-014 
1692.75 -5765.94 -1.20593e-014 
2476 -5276.97 101.691 
26.4493 -5320.82 3.55067 
1460.24 -6204.84 -7.87616e-015 
-22 -5334.49 58.7428 
2225.32 -6005.66 -22 
1312.94 -5463.54 -1.2855e-014 
723.274 -5459.19 -1.0684e-014 
198.875 -6239.09 -2.45365e-015 
644.193 -5437.21 -1.05593e-014 
836.737 -6328.71 -4.37406e-015 
1646.18 -6419 12 
1450.01 -6474.63 -5.8218e-015 
1673.74 -5672.92 -22 
565.469 -5687.3 20 
1908.47 -5231 117 
1264.94 -6060.71 -8.1707e-015 
1087.01 -6451.86 12 
926.209 -6208.3 -5.67313e-015 
1427.45 -6343.12 -6.70956e-015 
90.4801 -6320.54 -1.35477e-015 
2476 -6038.98 127.575 
439.64 -6143.09 -4.20121e-015 
278.404 -6070.95 -4.12623e-015 
1286.47 -5503.24 -1.24577e-014 
2454 -5806.07 63.7842 
192.443 -5289.03 -22 
685.791 -6023.47 -6.1418e-015 
1827.88 -5962.4 -22 
2340.48 -6369.39 -1.03064e-014 
1083.13 -6082.94 -7.26347e-015 
1634.37 -6280.23 -8.0333e-015 
2241.27 -6098.09 -1.1828e-014 
1016.76 -5515.22 -1.13527e-014 
343.872 -5650.23 -7.75016e-015 
1682.11 -6201.34 -8.8085e-015 
195.769 -6342.52 -1.61198e-015 
953.135 -6446.86 -22 
297.549 -5333.11 -1.00997e-014 
1589.62 -5649.86 -1.25169e-014 
470.835 -5226.03 149.86 
-22 -6044.75 31.0783 
2224.29 -6349.56 -9.96462e-015 
2012.46 -5461.47 -1.54887e-014 
1169 -5219 43.9258 
1662.31 -5231 149.86 
343.616 -5640.42 -7.82767e-015 
2083.64 -6379.76 -9.16387e-015 
515.244 -5838.46 -6.91477e-015 
286.794 -6224.38 -2.9349e-015 
1617 -6446.56 12 
2380.11 -5368.57 -1.75187e-014 
1495.19 -6150.03 -8.43066e-015 
2442 -6438.48 147.596 
1934.04 -5438.34 -1.53608e-014 
1710.63 -6137.92 -9.38793e-015 
2033.59 -6030.9 -1.14794e-014 
1320.95 -5441.79 -1.30482e-014 
118.009 -5229.38 19.6226 
12 -6100.53 142.877 
-11.9268 -6318.08 0 
114.964 -5740.71 -6.13795e-015 
1637.73 -5985.96 -1.02109e-014 
1787.43 -5460.16 -1.46593e-014 
1810.68 -6295.28 -8.64558e-015 
12 -5857.75 117.026 
2377.16 -6230.83 -1.14388e-014 
783.945 -5377.77 -1.15451e-014 
-50 -5645.69 -11.9919 
984.546 -5885.62 -22 
1351.45 -5424.92 -1.32896e-014 
940.515 -6451.86 6.16252 
843.755 -6262.77 -4.91174e-015 
1025.14 -5975.98 -7.84841e-015 
898.334 -5643.45 -9.91648e-015 
2180.53 -5970.84 -22 
740.662 -5878.84 -7.48343e-015 
793.957 -5320.64 -1.20241e-014 
2107.5 -6015.39 -1.18812e-014 
1444.7 -6022.47 20 
665.319 -5558.61 -9.68899e-015 
1306.53 -5844.69 -9.96216e-015 
2220.66 -6042.35 -1.21401e-014 
1290.49 -5623.07 -1.15675e-014 
1369.3 -5615.38 -1.19227e-014 
2028.13 -5527.06 -1.5075e-014 
1354.01 -5394.67 -1.35259e-014 
1091.81 -5452.76 -1.21127e-014 
2442 -6205.88 149.86 
2174.25 -6243.75 -1.0512e-014 
1874.3 -6022.47 20 
1172.32 -6442.29 12 
844.735 -5326.13 -1.21681e-014 
2180.75 -6129.12 -1.13572e-014 
0 -5419.74 80.1141 
1453.95 -5450.97 -22 
2161.72 -5657.8 -1.46433e-014 
0 -6293.32 96.6796 
-19.6365 -6466.86 61.9136 
565.469 -5687.3 20 
2442 -5625.87 117 
1734.14 -5335.63 -1.53705e-014 
1845.87 -6451.86 12 
2476 -5329.94 82.9095 
1000.54 -5693 20 
1052.53 -5590.98 -1.09135e-014 
2176 -6482.37 -8.81711e-015 
1264.88 -5238.45 -22 
2265.86 -6352.78 -1.01137e-014 
12 -6419 93.1418 
2288.77 -6048.65 -1.23768e-014 
1360.17 -5716 -1.11274e-014 
137.565 -5354.83 20 
1363.21 -6201.25 -22 
12 -5287.37 145.881 
12 -6298.84 149.86 
2244.03 -5701.95 -1.46552e-014 
1361.07 -5278.88 -1.44232e-014 
1601.38 -5978.99 -1.01203e-014 
1272.39 -6214.09 -7.0433e-015 
297.36 -5839.13 -22 
-19.5062 -6127.47 0 
342.872 -6431.75 12 
641.482 -5231 149.86 
2219.11 -6453.52 -22 
396.134 -5384.66 -1.00524e-014 
12 -6144.4 129.7 
1629.66 -5884.21 -1.09345e-014 
322.399 -5509.42 -22 
787.376 -5845.75 -7.92158e-015 
1620.64 -5907.13 -1.07291e-014 
700.467 -6282.54 -4.17354e-015 
1139.48 -5353.7 -1.30433e-014 
1186.61 -6419 12 
1344.09 -5281.49 -22 
1808.39 -6006.73 -1.07398e-014 
973.386 -5875.48 -8.42085e-015 
2483.97 -6096.31 -22 
382.879 -5457.25 -9.42595e-015 
1439.72 -6286.43 -7.18166e-015 
1173.8 -6036.9 -7.98036e-015 
2202.46 -6068.55 -1.1878e-014 
1391.06 -5359.42 -1.39292e-014 
1925.48 -6451.86 12 
728.109 -6282.58 -4.28561e-015 
2115.27 -5219 147.624 
1538.29 -5377.43 -1.43396e-014 
2295.54 -5524.96 -22 
776.913 -5816.4 -8.10699e-015 
626.553 -5418.27 -1.06429e-014 
1683.78 -5719.47 -1.23691e-014 
411.408 -6449.6 12 
2007.38 -5526.27 -1.50025e-014 
2476 -6420.09 39.3376 
996.624 -5841.55 -8.77352e-015 
1782.34 -6179.79 -9.37421e-015 
1493.03 -5643.62 -1.2185e-014 
317.309 -6279.4 -2.62076e-015 
2442 -5546.74 132.557 
1444.46 -5360 20 
2364.49 -6359.16 -1.04796e-014 
1433.28 -5199 -9.56488 
2454 -6411.1 145.794 
823.511 -5988.9 -22 
12 -6263.65 144.835 
213.19 -6253.5 -2.39713e-015 
2275.87 -6208.01 -1.11874e-014 
2202.24 -6220.45 -22 
12 -6451.86 94.5599 
2136.63 -6324.61 -9.77975e-015 
1658.88 -5633.84 -1.29065e-014 
1229.61 -6047.37 -8.12799e-015 
1940.81 -5738.78 -22 
397.526 -5837.14 -6.4642e-015 
1625.37 -5962.9 -1.03336e-014 
12 -6252.46 139.881 
982.997 -5624.93 -22 
2373.53 -5404.48 -1.72436e-014 
1409.5 -5402.64 -1.36753e-014 
2442 -5616.77 138.252 
387.957 -6037.15 -4.82579e-015 
1562.43 -5219 69.5247 
187.689 -6376.49 -1.30419e-015 
369.626 -5936.55 -5.55922e-015 
-35.6373 -5659.01 -22 
12 -6346.03 124.585 
1875.56 -6020.83 20 
1568.56 -5490.29 -22 
2272.38 -6136.96 -1.16796e-014 
2253.8 -5540.76 -1.58296e-014 
392.021 -5825.01 -6.5398e-015 
378.224 -6429.63 12 
130.316 -6278.45 -1.85704e-015 
1698.18 -5219 52.5307 
2143.26 -6451.86 12 
2204.68 -5546.41 -1.56046e-014 
649.65 -5402.64 -1.08511e-014 
193.242 -5219 157.284 
2289.76 -5836.2 -1.388e-014 
2267.26 -6256.74 -1.08043e-014 
238.001 -5738.8 -6.63351e-015 
830.539 -5678.66 -9.3794e-015 
895.393 -6126.39 -6.1801e-015 
170.851 -5946.36 -4.70413e-015 
2183.38 -5416.48 -1.64492e-014 
481.426 -6230.48 -3.68011e-015 
2442 -5781.16 130.517 
2190.82 -5405.63 -1.65541e-014 
617.821 -5713.14 -8.29561e-015 
1318.63 -5813.4 -1.02418e-014 
1599.74 -5871.71 -1.09101e-014 
2165.85 -6427.1 12 
2222.68 -5706.28 -22 
1704.04 -5893.48 -22 
-22 -5274.26 71.0681 
1542.58 -5979.93 -9.88299e-015 
1724.65 -5767.52 -1.21725e-014 
2442 -5589.99 117 
2111.68 -6199.45 -1.05724e-014 
346.21 -5605.5 -8.11734e-015 
-22 -5788.32 120.039 
957.577 -5483 -1.13758e-014 
2230.8 -5509.32 -1.59648e-014 
2010.37 -6173.73 -1.03458e-014 
405.039 -6451.86 12 
438.865 -5614.49 -8.39641e-015 
617.599 -5231 117 
2048.15 -6005.01 -1.17227e-014 
896.675 -5231 149.86 
808.215 -5737.25 -8.8401e-015 
561.284 -6419 12 
886.486 -6025.59 -6.92264e-015 
-50 -5469.35 -13.2331 
1174.52 -5382.03 -1.29584e-014 
1902.71 -5637.02 -1.38023e-014 
2094.19 -5862.74 -1.29175e-014 
994.973 -6086 -6.88194e-015 
634.142 -6161.37 -4.84815e-015 
921.248 -5621.55 -1.01752e-014 
1172.72 -6103.94 -22 
619.202 -5959.37 -6.37485e-015 
1055.95 -6078.79 -7.18443e-015 
1511.74 -6344.72 -7.04643e-015 
1874.14 -5689.96 20 
2245.58 -5387.47 -1.68859e-014 
1232.53 -6451.86 12 
487.011 -5591.55 -8.75813e-015 
1441.52 -5687.03 20 
2393.6 -5803.72 -1.45224e-014 
681.692 -5804.41 -7.82651e-015 
2077.59 -6073.87 -1.13455e-014 
48.3556 -5919.93 -22 
1585.99 -6426.56 12 
1770.92 -6451.86 12 
1687.24 -6354.26 -7.70344e-015 
989.776 -6255.47 -5.57233e-015 
306.695 -5664.36 -7.49145e-015 
51.4361 -5957.33 -4.15329e-015 
285.907 -5459.28 -9.04786e-015 
2149.3 -6443.67 12 
12 -5614.31 118.879 
2181.07 -5808.8 -1.36424e-014 
1111.54 -6361.31 -5.26188e-015 
436.186 -5913.93 -6.00103e-015 
1187.57 -5532.1 -1.18681e-014 
2351.04 -6451.86 12 
1705.37 -5645.01 -1.30004e-014 
1693.69 -5486.28 -1.4114e-014 
1185.87 -5860.12 -9.37149e-015 
564.245 -5450.63 -1.01585e-014 
1157.84 -6451.86 12 
1173.88 -5808.7 -9.72114e-015 
934.933 -5858.35 -8.40234e-015 
1049.97 -6181.43 -6.38275e-015 
771.331 -5616.61 -9.63272e-015 
1252.54 -5320.35 -1.37125e-014 
2028.35 -6133.25 -1.07133e-014 
949.924 -6496.12 -3.55446e-015 
353.529 -5945.9 -5.42141e-015 
1506.8 -5394.12 -22 
1493.01 -6419 12 
327.733 -5689.01 -7.37656e-015 
569.309 -5231 143.232 
343.466 -6029.17 -4.71548e-015 
13.3444 -5612.01 16.6556 
438.254 -5614.24 -8.39611e-015 
295.704 -5503.95 -8.72702e-015 
1423.33 -6250.4 -7.38472e-015 
2442 -6436.76 149.86 
1973.59 -6202.66 -9.98793e-015 
2048.16 -5219 91.1273 
567.196 -5693.48 20 
1000.83 -6021.56 20 
2151.97 -5836.87 -1.33283e-014 
1599.02 -5821.97 -1.12764e-014 
1896.01 -6366.94 -8.47736e-015 
2109.68 -6393.16 -9.17662e-015 
1407.22 -6160.29 -7.99542e-015 
2201.71 -6029.48 -1.21534e-014 
638.378 -5219 84.8369 
745.371 -5579.46 -9.82684e-015 
1749.41 -6338.56 -8.0768e-015 
2471.97 -5219 126.071 
491.243 -6179.93 -4.12091e-015 
1723.79 -6319.31 -22 
903.406 -5483.9 -1.11679e-014 
1671.39 -5958.33 -22 
2504 -5496.26 -16.1235 
2056.12 -6451.86 12 
659.667 -6388.69 -3.17146e-015 
1258.72 -5944.71 -22 
2436.36 -5782.81 -4.39027e-015 
1293.14 -5924.4 -9.31678e-015 
1792.1 -5461.06 -1.46703e-014 
1291.67 -6033.77 -8.48321e-015 
979.907 -5807.84 -8.96808e-015 
1411.76 -5952.89 -9.57128e-015 
2017.54 -6366.34 -8.9867e-015 
2311.3 -6025.53 20 
1102.11 -6151.96 -6.81827e-015 
2326.18 -5738.07 -1.47098e-014 
1426.09 -5548.13 -22 
895.496 -6256.16 -5.17684e-015 
1469.73 -5910 -1.01166e-014 
968.304 -6451.86 12 
499.309 -5219 22.644 
1303.64 -6189.76 -7.35267e-015 
1376.02 -6419 12 
2216.81 -5587.82 -1.5358e-014 
1941.88 -5319.69 -1.62504e-014 
2301.31 -5993.77 -1.28115e-014 
78.4355 -5231 117.324 
2348.74 -5981.78 -1.30768e-014 
217.962 -5231 149.86 
1498.81 -5557.89 -1.28459e-014 
939.092 -6421.75 12 
335.076 -6451.86 12 
1408.63 -5804.71 -1.06588e-014 
851.171 -5441.18 -1.13044e-014 
1421.5 -5913.3 -9.90329e-015 
1068.08 -5646.42 -1.05526e-014 
910.862 -5678.32 -9.69665e-015 
908.112 -5976.34 -7.3872e-015 
2121.6 -6432.34 -22 
146.084 -5807.94 -5.72145e-015 
200.111 -5335.78 -9.71935e-015 
570.966 -5691.52 20 
863.499 -6243.84 -5.13942e-015 
1363.58 -6082.64 -8.40565e-015 
12 -6394.78 117 
814.36 -5867.52 -7.8594e-015 
195.11 -6067.11 -3.82737e-015 
1007.91 -5458.52 -1.17525e-014 
1560.15 -5343.04 -1.4675e-014 
661.361 -6235 -4.38475e-015 
1975.94 -5395.52 -1.58273e-014 
2289.84 -5828.53 -1.39344e-014 
2022.94 -5564.95 -1.47798e-014 
2344.5 -5558.83 -1.60439e-014 
1880.44 -5694.17 20 
2322.59 -5760.12 -1.45406e-014 
-22 -6466.86 27.3567 
445.09 -5231 149.86 
441.568 -6030.83 -5.09131e-015 
1127.09 -5316.8 -1.32778e-014 
1078.55 -6140.73 -6.80751e-015 
2476 -5962.87 159.473 
1074 -5937.17 -8.33909e-015 
2182.58 -5231 139.522 
1807.03 -6002.53 -1.07649e-014 
596.93 -5727.13 -8.1069e-015 
2230.43 -5698.72 -1.46267e-014 
291.676 -6113.49 -3.83771e-015 
2476 -6118.39 144.406 
1683.02 -6030.23 -1.00598e-014 
1251.69 -5420.35 -1.29536e-014 
564.565 -5687.83 20 
212.021 -5231 147.899 
2054.26 -5990.1 -22 
725.682 -5654.45 -9.16331e-015 
1581.04 -5990.93 -9.95203e-015 
-22 -5658.07 78.8395 
142.701 -6185.59 -2.65744e-015 
533.616 -5555.7 -9.21553e-015 
1519.44 -6052.23 -9.25581e-015 
2240.89 -6347.13 -1.00507e-014 
462.014 -5684.69 -7.932e-015 
1012.79 -6451.86 12 
497.967 -5227.92 -1.1669e-014 
2442 -5646.99 149.86 
1175.53 -5786.86 -9.89477e-015 
457.685 -5640.68 -8.26152e-015 
183.454 -6004.7 -4.28414e-015 
678.899 -5221.63 -6.9273e-016 
12 -6001.91 128.503 
12 -6004.39 133.037 
245.639 -6156.94 -3.30725e-015 
565.965 -5354.14 20 
1965.43 -5197 88.7375 
2295.38 -6259.58 -1.09004e-014 
1913.43 -6174.6 -22 
1185.79 -5401.33 -22 
2369.05 -5231 117 
782.101 -5993.3 -6.76289e-015 
1854.34 -6335.59 -8.53293e-015 
347.096 -6196.12 -3.40663e-015 
2028 -6181.19 -1.03638e-014 
304.218 -5381.51 -9.73798e-015 
2123.95 -5527.59 -1.54323e-014 
1538.26 -6258.92 -7.79373e-015 
580.64 -5526.25 -9.62418e-015 
1358.41 -6062.45 -8.53745e-015 
1529.61 -6261.06 -7.742e-015 
675.381 -6124.42 -5.30613e-015 
2318.59 -5692.75 20 
1611.11 -6130.58 -9.03679e-015 
1244.11 -6240.67 -6.72545e-015 
1988.73 -6027.69 -1.13204e-014 
1550.2 -5231 146.899 
1761.18 -6260 -8.69874e-015 
1880.61 -5947.65 -22 
1287.95 -6447.23 12 
1802.34 -5613.24 -1.3597e-014 
626.376 -5405.08 -1.07459e-014 
1143.88 -6346.84 -5.5063e-015 
143.175 -6174.42 -2.74953e-015 
361.466 -5725.87 -7.21361e-015 
434.27 -6436.51 -22 
12 -5427.22 149.86 
1707.21 -5624.54 -1.31563e-014 
1864.12 -6107.33 -1.02344e-014 
59.4165 -5684.86 -6.38556e-015 
424.152 -6281.01 -3.04654e-015 
685.136 -5552.11 -9.81479e-015 
2337.83 -5931.67 -1.33873e-014 
1068.29 -5276.21 -1.33728e-014 
640.545 -6148.81 -4.97291e-015 
960.528 -6208.24 -5.81429e-015 
1273.48 -6176.86 -7.32679e-015 
479.685 -6199.53 -3.91847e-015 
565.632 -6027.75 20 
563.136 -6022.96 20 
2454 -6236.55 18.8157 
1639.77 -5231 138.691 
877.367 -5609.04 -1.00998e-014 
2277.35 -6246.72 -1.09175e-014 
1193.44 -5231 117 
217.834 -6090.14 -3.73371e-015 
-14.853 -6492.53 4.80613e-016 
2114.09 -5312.02 -22 
-16.2578 -5906.17 -4.29006e-015 
1673.57 -5430.42 -1.44487e-014 
2018.02 -5748.98 -1.34304e-014 
2454 -6329.79 78.9434 
1925.61 -6155.94 -1.01307e-014 
1112.19 -5362.51 -1.28758e-014 
1635.62 -5926.26 -1.06458e-014 
430.809 -6181.67 -3.8615e-015 
343.47 -5464.21 -22 
763.12 -5960.83 -6.93899e-015 
2442 -6189.02 117 
2130.92 -6141.57 -1.10697e-014 
253.94 -6173.49 -3.20732e-015 
1617.29 -6151.48 -8.9099e-015 
2476 -6395.33 77.9988 
1404.98 -5282.48 -22 
408.427 -5656.92 -7.94825e-015 
2436.09 -6113.05 12.0925 
330.695 -5363.92 -9.97659e-015 
461.155 -5714.76 -7.69248e-015 
67.7997 -6337.35 -1.12393e-015 
1730.4 -5988.02 -1.0559e-014 
1023.61 -5520.13 -1.13409e-014 
1005.53 -5219 67.6087 
1176.82 -5557.27 -1.1637e-014 
2397.45 -6000.65 -1.31488e-014 
1602.39 -5798.02 -1.14673e-014 
1273.58 -6246.95 -6.79986e-015 
0 -5339.49 58.4847 
1731.78 -5499.19 -1.41628e-014 
1205.71 -5231 145.04 
2442 -5690.11 124.245 
673.041 -6309.69 -3.84698e-015 
2274.68 -6495.3 -9.14048e-015 
1675.26 -5433.32 -1.44338e-014 
2184.57 -6098.34 -1.15916e-014 
460.599 -5461.93 -22 
661.653 -5665.93 -8.83182e-015 
9.50533 -5408.24 20.4947 
1925.29 -5642.61 -1.38467e-014 
537.048 -5611.74 -8.78804e-015 
2271.61 -6076.86 -1.2105e-014 
981.919 -5231 149.86 
371.755 -5715.53 -22 
1959.73 -5875.41 -1.23006e-014 
626.384 -5551.83 -9.59558e-015 
2100.99 -5794.77 -1.34288e-014 
928.475 -6020.52 -7.12621e-015 
2173.85 -5219 54.5819 
1098.86 -5657.39 -1.05856e-014 
613.122 -6487.22 -2.20566e-015 
1973.58 -6060.23 -1.1022e-014 
916.579 -5431.87 -1.16179e-014 
746.002 -5415.56 -1.11094e-014 
2442 -5487.04 149.86 
2442 -5905.78 117 
1717.83 -6419 12 
274.7 -5591.14 -7.95216e-015 
1660.58 -5436.89 -22 
1233.36 -6419 12 
1792.7 -6388.17 -7.89257e-015 
2355.8 -6271.3 -1.10632e-014 
1444.82 -5470.06 -1.33031e-014 
1627.26 -6323.13 -22 
2476 -6015.37 33.973 
1503.25 -5777.83 -1.12289e-014 
2043.16 -5568.39 -1.48309e-014 
2031.47 -5712.96 -1.37399e-014 
1103.38 -6448.45 12 
2179.25 -5736.03 -1.41542e-014 
840.339 -6458.7 -3.3823e-015 
85.4188 -6112.11 -22 
95.8581 -5476.95 -8.19686e-015 
1254.74 -6033.43 -8.33567e-015 
549.939 -6257.55 -3.74723e-015 
1821.52 -5219 69.5857 
2120.19 -5691.48 -1.42405e-014 
1528.15 -5799.96 -1.11622e-014 
2217.61 -5360.46 -1.69751e-014 
706.276 -5777.88 -8.12745e-015 
-0.59255 -6081.59 -2.92525e-015 
1366.48 -5909.47 -9.71622e-015 
1686.63 -5525.58 -1.37987e-014 
647.071 -5770.55 -7.95465e-015 
2348.25 -6478.65 -22 
1222.72 -6344.32 -5.85236e-015 
82.2242 -6448.43 -22 
2322.24 -6154.89 -1.17532e-014 
881.004 -5219 66.4239 
1004 -6028 20 
1487.57 -5273.74 -1.49241e-014 
655.616 -6119.78 -5.26232e-015 
-22 -5795.21 96.1844 
703.68 -5951 -6.78203e-015 
1649.44 -6188.57 -8.76948e-015 
809.621 -6419 12 
1022.06 -5539.5 -1.11883e-014 
60.8684 -5306.27 -9.4487e-015 
-22 -6042.83 49.358 
1478.99 -6202.2 -7.97217e-015 
861.721 -6063.41 -22 
12 -5587.07 149.86 
2061.02 -5312.06 -1.6744e-014 
1725.33 -5231 133.633 
2045.44 -5231 149.86 
734.361 -5817.96 -7.92833e-015 
1754.93 -5589.09 -1.35941e-014 
1177.25 -5819.71 -9.64948e-015 
1009.63 -6140.85 -6.52648e-015 
2157.46 -5781.24 -1.37465e-014 
2137.16 -6242.21 -1.03694e-014 
1167.99 -5586.27 -1.13843e-014 
141.531 -6027.7 20 
2432.03 -6357.73 8.03278 
1203.51 -5817.36 -9.76944e-015 
530.826 -5513.31 -9.53886e-015 
1707.88 -5232.26 -1.6034e-014 
1144.82 -5724.69 -1.02495e-014 
570.966 -5691.52 20 
655.841 -6065.14 -5.69257e-015 
892.26 -5732.83 -9.20336e-015 
883.859 -5231 117 
913.306 -5637.54 -1.00207e-014 
1832.71 -6201.63 -9.41848e-015 
2057.15 -5891.76 -1.25655e-014 
603.061 -5351.05 -1.10839e-014 
1066.61 -6268.31 -22 
884.911 -5475.76 -22 
1549.63 -6231.15 -8.04682e-015 
928.449 -5880.4 -8.20692e-015 
12 -5373.05 117 
1584.8 -5729.94 -1.19037e-014 
1317.85 -6463.21 -22 
2253.94 -5369.65 -1.70439e-014 
70.5899 -5197 102.679 
732.673 -5957.59 -6.8447e-015 
1957.91 -6233.87 -9.69941e-015 
-22 -5369.49 133.995 
421.809 -5589.56 -8.52804e-015 
-47.1554 -5337.6 -8.79592e-015 
1480.58 -5561.34 -1.27511e-014 
1363.69 -5795.89 -1.05482e-014 
2133.19 -5570.98 -1.51514e-014 
429.251 -6216.5 -22 
2476 -6398.29 135.194 
348.696 -5885.95 -22 
671.798 -5615.7 -9.26477e-015 
12 -5511.4 149.86 
1167.43 -6065.36 -22 
1176.95 -6451.86 12 
2454 -5990.33 80.4307 
1959.26 -5890.76 -1.21893e-014 
481.543 -6230.2 -3.68278e-015 
1880.12 -5852.64 -1.21511e-014 
938.688 -5965.93 -7.58732e-015 
1511.57 -5893.73 -1.04013e-014 
2442 -5434.2 144.371 
2114.09 -6364.29 -9.40129e-015 
1595.46 -5219 71.7271 
2053.36 -5565.95 -1.48871e-014 
2258.83 -6333.92 -1.02191e-014 
1007.46 -5693 20 
814.104 -6207.54 -5.21935e-015 
1475.84 -6451.86 12 
142.828 -6026.83 20 
1266.84 -5262.39 -22 
2204.37 -5450.27 -1.62858e-014 
1065.27 -6081.07 -7.205e-015 
1085.82 -5624.4 -1.07861e-014 
2090.42 -5431.32 -1.59997e-014 
1184.31 -5456.75 -1.24291e-014 
1262.38 -5553.96 -1.19845e-014 
1290.9 -6340.13 -6.16649e-015 
1425.63 -5197 128.395 
638.288 -6221.25 -4.398e-015 
724.743 -6314.71 -4.0215e-015 
715.505 -5984.6 -6.56803e-015 
699.321 -6493.9 -2.51605e-015 
2442 -5575.36 143.392 
1132.61 -5602.78 -1.1126e-014 
224.761 -5348.99 -9.70472e-015 
838.768 -5621.89 -9.84953e-015 
-13.7589 -5219 108.605 
379.451 -5219 132.615 
2142.59 -6064.24 -1.16703e-014 
766.463 -6419 12 
737.753 -5355.71 -1.1545e-014 
426.755 -6238.03 -3.39796e-015 
95.5995 -5651.39 -22 
638.81 -5963.05 -6.42568e-015 
2035.11 -6091.72 -1.1043e-014 
213.763 -5551.68 -8.04167e-015 
1044.44 -5885.44 -8.62234e-015 
1462.56 -6325.34 -6.98743e-015 
2318.36 -5355.84 20 
1107.06 -5526.02 -1.16106e-014 
640.294 -6147.05 -4.9857e-015 
1931.45 -5808.41 -1.26675e-014 
1641.32 -5338.5 -1.50074e-014 
2476 -5445.69 21.9105 
1340.18 -5394.62 -1.34751e-014 
1998.29 -5661.26 -1.39861e-014 
1096.5 -6342.26 -5.3452e-015 
991.999 -6451.86 12 
669.974 -5955.45 -6.61209e-015 
1703.17 -5606.28 -1.3274e-014 
1601.63 -5475.24 -1.38483e-014 
1879.89 -6020.48 20 
2040.21 -5231.06 17.9434 
2155.57 -6058.11 -1.17649e-014 
837.58 -6451.86 12 
70.5634 -6204.7 -2.21643e-015 
1456.15 -5237.29 11.7083 
2209.58 -5607.26 -1.51936e-014 
2154.64 -6211.33 -1.0662e-014 
1032.09 -5231 143.672 
428.319 -5765.37 -7.15929e-015 
0 -6088.04 27.9653 
743.827 -5755.35 -8.4483e-015 
1981.46 -5382.63 -1.59414e-014 
870.885 -5271.87 -1.26849e-014 
786.237 -6154.49 -5.52041e-015 
2121.69 -6132.55 -1.10978e-014 
2454 -6398.49 57.0421 
1475.32 -5231 142.131 
622.456 -6419 12 
148.437 -6333.14 -1.49172e-015 
2442 -6443.15 146.914 
452.644 -6099.76 -4.59464e-015 
855.028 -5525.21 -1.06664e-014 
984.636 -5608.62 -1.05231e-014 
2037.51 -5601.18 -1.45711e-014 
1932.14 -5476.85 -1.50752e-014 
452.117 -5489 -9.43502e-015 
157.772 -5231 117 
422.701 -6048.92 -4.87245e-015 
0 -6027.66 74.1222 
12 -6270.15 126.058 
379.878 -5628.12 -8.06702e-015 
1342.7 -5609.26 -1.18688e-014 
1469.64 -6435.03 12 
2156.54 -6276.96 -1.02019e-014 
1623.52 -6338.53 -7.55571e-015 
907.394 -5487.08 -1.11581e-014 
2272.83 -5514.42 -1.60872e-014 
1790.48 -6266.08 -8.77444e-015 
231.318 -6315.11 -1.97902e-015 
2219.12 -5831.77 -1.36353e-014 
2206.51 -5661.34 -1.47984e-014 
715.368 -5327.11 -1.1685e-014 
896.586 -5540.24 -22 
52.415 -5219 80.5208 
2442 -6435.54 62.0914 
1186.91 -5743.95 -1.02624e-014 
2014.39 -5723.32 -1.35991e-014 
1085.69 -5395.02 -1.25307e-014 
1778.77 -5692.02 -1.2935e-014 
298.498 -6419 12 
442.315 -6451.86 12 
1110.1 -5231 119.196 
1604.17 -6255.85 -8.08925e-015 
587.41 -5560.08 -9.38381e-015 
101.531 -5949.63 -4.39952e-015 
1650.18 -5742.68 -1.20653e-014 
2476 -6094.39 144.632 
929.311 -5972.38 -22 
1183.23 -5688.64 -1.06671e-014 
2482.75 -5898.84 -22 
2077.56 -6351.01 -22 
198.356 -5795.37 -6.03424e-015 
1953.67 -5716.24 -1.34179e-014 
1162.71 -6030.17 -7.98629e-015 
2121.68 -6449.55 12 
1309.65 -5777 -22 
698.319 -5349.91 -1.14445e-014 
1064.76 -6254.3 -5.8861e-015 
1440.14 -5501.59 -1.30492e-014 
-22 -5415.24 110.633 
959.888 -6358.52 -4.65382e-015 
1385.65 -5862.35 -1.0141e-014 
402.461 -5574.46 -8.57382e-015 
195.788 -6260.28 -2.27089e-015 
1175.85 -6226.79 -6.54801e-015 
1565.26 -5895.64 -1.05974e-014 
2442 -6451.86 135.852 
24.2653 -6451.86 22.7052 
1447.13 -6126.97 -8.40978e-015 
788.995 -5698.2 -9.06598e-015 
1967.24 -6071.26 -1.0916e-014 
866.129 -5778.95 -22 
231.674 -5277.41 -1.03047e-014 
618.355 -6054.72 -5.62209e-015 
1197.11 -5693.25 -1.06845e-014 
483.975 -5518.02 -9.32495e-015 
2191.04 -5915.72 -1.29204e-014 
412.783 -6288.52 -2.94074e-015 
1074.09 -6419 12 
2055.13 -6496.45 -8.20752e-015 
2083.22 -5247.87 -1.72864e-014 
972.183 -5924.4 -8.03876e-015 
527.652 -6450.97 12 
867.963 -6041.12 -6.73037e-015 
986.265 -6090.57 -6.81228e-015 
354.738 -5349.18 -1.01825e-014 
1534.4 -5534.9 -1.3154e-014 
1681.76 -5694.42 -1.25471e-014 
1202.85 -6451.86 12 
2361.77 -6405.47 -1.01414e-014 
1073.97 -6364.76 -5.08003e-015 
940.585 -5344.96 -1.23758e-014 
1539.74 -5873.79 -1.06596e-014 
302.642 -5585.55 -8.10642e-015 
2218.36 -5274.08 -1.75924e-014 
1304.81 -6418.66 10.0714 
518.897 -5863.44 -6.72909e-015 
230.961 -5497.85 -8.53608e-015 
399.615 -5558.5 -8.6885e-015 
538.826 -5219 66.8265 
1072.45 -5720.34 -1.00054e-014 
267.126 -5902.32 -5.43225e-015 
2442 -5541.69 143.877 
2311.48 -5692.89 20 
2454 -5846.89 72.9611 
12 -5348.91 117 
249.826 -5757.62 -6.52653e-015 
1643.03 -6192.6 -8.71387e-015 
1107.9 -6409.46 -4.88002e-015 
41.7015 -5219 37.0278 
956.448 -5565.31 -1.07457e-014 
2248.37 -6299.38 -1.04221e-014 
1745.44 -5219 104.113 
831.264 -5764.44 -8.72063e-015 
725.963 -5900.6 -7.25803e-015 
-22 -5823.2 96.3374 
700.504 -5874.35 -7.36077e-015 
2202.07 -5922.36 -1.29188e-014 
364.297 -5619.11 -8.07908e-015 
1804.29 -5871.88 -1.171e-014 
216.149 -5394.64 -9.30747e-015 
2454 -5322.78 83.973 
626.772 -5685.28 -8.5483e-015 
1229.55 -5231 117 
1211.38 -6405.59 -22 
364.843 -6451.86 12 
2442 -5334.77 144.889 
2158.3 -6330.29 -9.8289e-015 
288.01 -5717.06 -6.99643e-015 
1643.26 -6173.09 -8.85818e-015 
1787.08 -5575.5 -1.38141e-014 
1663.59 -5738.76 -1.21469e-014 
1920.22 -5341.72 -1.60114e-014 
1734.5 -5361.32 -1.5184e-014 
1886.48 -5219 10.8088 
2223.29 -6451.86 12 
615.063 -6272.46 -3.89961e-015 
1444.17 -5693.44 20 
689.853 -5555.63 -9.80489e-015 
545.563 -6110.56 -4.88743e-015 
991.535 -6419 12 
1150.26 -6126.59 -7.20597e-015 
1431.36 -6267.92 -7.28602e-015 
2442 -6236.32 139.334 
357.565 -6474.43 -1.2317e-015 
2398.75 -5664.08 -1.55235e-014 
570.173 -6026.44 20 
1146.78 -6369.31 -5.34664e-015 
268.248 -6491.69 -7.18466e-016 
1285.67 -5745.62 -1.0622e-014 
1284.37 -6451.86 12 
2305.97 -5477.75 -1.64709e-014 
808.172 -5409.12 -1.13929e-014 
2454 -6281.21 71.3297 
741.445 -5756.18 -8.43257e-015 
197.912 -6152.76 -3.14701e-015 
1643.77 -5718.49 -1.22197e-014 
2265.3 -5838.78 -1.37696e-014 
2256.05 -6247.94 -1.08206e-014 
1754.79 -5912.63 -1.12137e-014 
793.511 -6230.03 -4.96057e-015 
1222.02 -5396.06 -1.30277e-014 
1936.7 -6419 12 
631.848 -5944.96 -6.53953e-015 
1424.64 -6168.38 -8.00499e-015 
1607.61 -5965.75 -1.02429e-014 
1676.79 -5803.06 -1.17213e-014 
813.057 -5927.46 -7.39195e-015 
1461.1 -5301.11 -1.46224e-014 
868.097 -5953.63 -7.40568e-015 
1006.83 -6021.17 20 
1933.15 -6451.86 12 
2442 -5793.08 149.86 
-22 -5787.57 114.029 
2264.13 -5907.45 -1.32806e-014 
1748.01 -5266.82 -1.59264e-014 
931.768 -5461.99 -1.14417e-014 
577.718 -5606.87 -22 
1489.65 -6301.91 -7.27349e-015 
1690.69 -6069.64 -9.80367e-015 
2215.3 -6230.28 -1.07779e-014 
2084.09 -6224.2 -1.0282e-014 
2005.28 -5231 149.86 
1766.02 -6289.73 -8.50118e-015 
2024.09 -6449 12 
978.345 -5783.44 -9.15014e-015 
1691.05 -5659.5 -1.28411e-014 
1459.99 -5894.09 -22 
1935.96 -5231 117 
1608.5 -5438.9 -1.41427e-014 
12 -6419 53.0232 
1262.84 -5667 -1.11309e-014 
1785.23 -6448.2 12 
2083.41 -5877.4 -1.27707e-014 
12 -6162.35 149.86 
2454 -5531.18 16.7076 
1555.47 -5431.33 -1.4003e-014 
1404.89 -5433.87 -1.34239e-014 
944.013 -6178.76 -5.97239e-015 
38.8374 -5943.43 -22 
548.264 -5857.39 -6.89254e-015 
2267.03 -5938.43 -1.30728e-014 
750.84 -5500.37 -22 
1001.56 -5361.17 20 
1181.53 -6009.29 -8.22073e-015 
1570.95 -5572.16 -1.30205e-014 
1595.83 -5693.35 -1.22184e-014 
2470.73 -5763.63 -22 
625.516 -5946.38 -6.5026e-015 
2476 -6293.79 139.265 
1251.59 -5236.99 12.0147 
2442 -5592.18 117.521 
2054.46 -5223.32 -1.73581e-014 
-22 -6466.86 99.6208 
2442 -5837.06 149.86 
1880.44 -6020.83 20 
-22 -5927.37 63.4787 
183.614 -5439.87 -8.82527e-015 
1269.21 -5612.9 -1.15643e-014 
2454 -5465.16 85.4307 
1166.13 -6451.86 12 
156.7 -5762.43 -6.13221e-015 
2090.43 -5231 139.335 
366.888 -6173.9 -3.66327e-015 
954.055 -6451.86 12 
1586.64 -5697.62 -1.21508e-014 
714.406 -5675.31 -8.95686e-015 
880.002 -6027.42 -6.88314e-015 
910.035 -5197 82.459 
7.88208 -5549.57 116.266 
0 -5539.56 72.5308 
957.077 -5605.11 -1.04423e-014 
1317.88 -5219 33.9527 
85.945 -6350.63 -1.09075e-015 
912.065 -5861.46 -8.28877e-015 
490.765 -5392.25 -1.03458e-014 
576.751 -6451.86 12 
1330.3 -5375.27 -1.3585e-014 
1742.63 -5651.5 -1.30937e-014 
2476 -5460.18 9.90536 
2454 -5927.85 160.508 
2046.71 -5495.16 -1.5375e-014 
1743.64 -6419 12 
381.252 -6237.19 -3.21972e-015 
1005.04 -6020.14 20 
1396.52 -5774.06 -1.08389e-014 
0 -5777.66 69.4922 
-22 -6135.29 58.4881 
2312.5 -5361.12 20 
894.197 -6479.16 -3.45049e-015 
1148.85 -5231 128.198 
2454 -6191 80.7019 
1981.02 -6065.2 -1.10161e-014 
1090.05 -5847.94 -9.09018e-015 
1802.47 -5785.77 -1.23419e-014 
383.385 -5676.16 -7.69733e-015 
440.664 -5392.23 -1.01594e-014 
287.537 -6151.85 -3.51441e-015 
866.948 -5328.24 -1.22339e-014 
1214.13 -6002.21 -8.40686e-015 
1938.8 -6377.68 -8.57626e-015 
863.26 -5815.94 -8.44873e-015 
201.012 -5665.13 -22 
2476 -5691.67 150.805 
425.935 -6220.65 -3.53253e-015 
1236.29 -5991.32 -8.57929e-015 
2217.39 -5640.54 -1.49882e-014 
2223.8 -5782.19 -1.40082e-014 
939.273 -5219 65.5457 
2314 -6322.47 -1.0529e-014 
1003.61 -5278.05 -1.31223e-014 
689.747 -5231 149.86 
200.751 -5545.63 -8.04202e-015 
1036.57 -5850.97 -8.85733e-015 
2415.78 -6456 -1.00123e-014 
2332.27 -5782.05 -1.44224e-014 
2442 -6451.86 138.714 
2176.83 -5733.99 -1.41593e-014 
535.147 -5530.16 -9.42199e-015 
1007.26 -5522.41 -1.1262e-014 
1093.91 -5236.64 12.3629 
675.658 -5219 156.407 
2267.11 -6309.66 -1.04263e-014 
1035.6 -5412.83 -1.22059e-014 
1137.83 -5876.68 -9.05566e-015 
1089.96 -5671.81 -1.04429e-014 
1324.99 -6170.26 -7.58573e-015 
1892.32 -6419 12 
448.202 -5197 91.591 
1444.44 -6339.18 -6.80937e-015 
108.157 -5351.96 -22 
2454 -6199.27 158.995 
0 -5387.79 60.497 
872.97 -5457.1 -1.12622e-014 
2102.91 -5593.3 -1.48749e-014 
1706.98 -5951.59 -1.07373e-014 
665.505 -5395.27 -1.09676e-014 
935.094 -6258.94 -22 
973.448 -5231 117 
1380.22 -5658.49 -1.16376e-014 
210.247 -6160.39 -3.1355e-015 
286.549 -5231 149.86 
1593.05 -5551.95 -1.32543e-014 
1337.19 -6085.42 -8.27737e-015 
1103.1 -5784.73 -9.62884e-015 
743.055 -5919.53 -7.17893e-015 
1360.85 -5531.52 -1.25255e-014 
1942.71 -5219 90.7457 
555.786 -5506.27 -9.68878e-015 
522.51 -5948.47 -6.06751e-015 
397.789 -5473 -22 
495.669 -5485.58 -9.62633e-015 
-22 -5351.72 158.582 
-22 -5940.8 145.965 
1379.96 -5909.79 -9.7666e-015 
423.11 -5558.18 -8.77958e-015 
734.629 -6444 12 
1503.39 -6289.08 -7.42554e-015 
1746.62 -5558.76 -22 
1515.66 -5728.66 -1.16424e-014 
1954.23 -6021.97 -1.12218e-014 
1001.59 -6197.63 -6.06229e-015 
2214.97 -6441.65 12 
1866.57 -6455.96 -22 
1540.25 -5711.75 -1.18642e-014 
2442 -6183.33 117 
461.9 -6419 12 
945.878 -5446.97 -22 
1686.01 -5775.4 -22 
66.4497 -5234.77 14.2316 
1304.65 -6101.33 -8.0247e-015 
196.006 -6419 12 
934.557 -6441.81 -22 
1285.65 -6274.46 -6.6417e-015 
2199.82 -5966.24 -1.25966e-014 
952.555 -5219 97.4777 
879.781 -5781.26 -8.78095e-015 
235.621 -6243.2 -2.57244e-015 
2087.6 -5445.65 -1.58858e-014 
1881.05 -6083.86 -1.0474e-014 
1002 -5361.46 20 
810.961 -6202.56 -5.24539e-015 
1042.16 -5459 -1.18779e-014 
0 -5359.29 75.3156 
2124.18 -5899.61 -1.27721e-014 
2442 -5869.94 145.695 
1547.64 -6218.29 -8.13406e-015 
1129.53 -5574.95 -1.1325e-014 
898.586 -5339.07 -22 
12 -6189.59 149.86 
1395.81 -6253.2 -7.25188e-015 
436.882 -5627.35 -8.28792e-015 
1310.73 -5572.41 -1.20272e-014 
1007.7 -6025.53 20 
646.639 -6419 12 
1319.55 -6278.18 -6.75385e-015 
1258.27 -6419 12 
161.661 -6419 12 
1828.67 -5449.46 -1.48907e-014 
887.997 -6071.05 -6.57799e-015 
1206.91 -5360.99 -1.32373e-014 
1015.88 -5533.03 -1.12139e-014 
230.73 -6011.64 -4.42019e-015 
363.589 -5386.57 -9.91679e-015 
1764.83 -5445.82 -1.46795e-014 
-22 -6466.86 164.251 
1120.67 -5398.54 -1.26345e-014 
1088.01 -5783.67 -22 
1397.19 -5523.2 -1.27254e-014 
2065.21 -5231 117 
1757.65 -5927.13 -1.11172e-014 
840.898 -5219 112.066 
0 -5767.97 58.3037 
603.104 -5455.64 -1.02626e-014 
862.824 -5883.29 -7.92758e-015 
250.504 -5877.78 -5.56724e-015 
1503.74 -6475.6 -6.03954e-015 
1072.4 -6316.29 -5.44352e-015 
210.542 -5966.03 -4.70654e-015 
1235.02 -5417 -1.29173e-014 
2270.23 -6162.31 -1.14899e-014 
635.895 -5925.76 -6.70688e-015 
1786.19 -5823.62 -1.19972e-014 
461.804 -5231 148.131 
-22 -5815.6 37.85 
963.499 -5510.55 -1.11876e-014 
2072.65 -6419 12 
2006.44 -6134.75 -1.06134e-014 
817.132 -6307.6 -4.45578e-015 
12 -5417.71 132.791 
980.431 -6298.48 -5.20193e-015 
894.186 -5404.91 -1.17431e-014 
564.565 -5687.83 20 
676.484 -6431.57 12 
2197.1 -6183.1 -1.1039e-014 
1459.36 -6240.14 -7.60804e-015 
714.64 -5231 149.86 
1313.61 -5785.03 -1.04327e-014 
1518.4 -5437.88 -1.38174e-014 
2269.08 -5622.5 -1.53103e-014 
2476 -6051.47 40.3433 
743.873 -6446.9 12 
1257.49 -5219 74.6957 
1357.71 -5474.6 -1.29408e-014 
364.341 -5576.05 -8.41768e-015 
561.598 -5580.37 -22 
894.453 -5347.04 -1.21904e-014 
1189.49 -5637.95 -1.10743e-014 
1918.62 -6172.65 -9.98071e-015 
1762.45 -6047.9 -1.02535e-014 
2205.39 -5307.06 -1.731e-014 
699.067 -5821.12 -7.7657e-015 
2316.53 -5687.3 20 
311.916 -5691.51 -7.29459e-015 
1898.39 -5678.08 -1.34872e-014 
1324.18 -5231 149.86 
1091.71 -5747.1 -9.87446e-015 
-22 -5562.75 109.15 
359.213 -5615.44 -8.08873e-015 
0 -6066.49 57.5546 
2442 -6172.57 117 
826.596 -6107.54 -6.05343e-015 
1117.38 -5783.65 -9.69306e-015 
2254.82 -6254.68 -1.07675e-014 
1694.34 -6431.69 12 
2289.02 -6472.13 -9.36445e-015 
1093.76 -6167.64 -6.66571e-015 
2442 -5503.5 137.461 
118.507 -5472.81 -8.31618e-015 
236.649 -5789.17 -6.2253e-015 
2123.35 -6064.96 -1.15898e-014 
652.681 -6106.39 -22 
521.845 -6029.15 -5.43074e-015 
153.9 -5231 117 
2340.69 -5851.73 -22 
411.589 -5615.55 -8.28533e-015 
1831.88 -5570.34 -1.40205e-014 
871.61 -5231 140.482 
12 -6065.33 149.86 
143.464 -5693 20 
635.493 -6440.75 12 
394.74 -6286.9 -2.88028e-015 
361.826 -5888.84 -5.91055e-015 
1033.31 -5231 117 
572.37 -5622.96 -8.83301e-015 
1886.24 -6419 12 
928.413 -5492.42 -1.11946e-014 
867.281 -5847.7 -22 
2055.2 -6146.2 -22 
1255.94 -6154.25 -7.42624e-015 
1948.08 -5658.36 -1.3818e-014 
141.886 -5361.52 20 
2442 -5398.41 117 
12 -6451.86 89.9033 
794.378 -6128.55 -5.75741e-015 
1730.04 -5901.53 -1.1199e-014 
711.772 -6445.93 12 
2375.01 -5219 76.2193 
1720.41 -6338.94 -7.95402e-015 
261.349 -5566.3 -8.10051e-015 
140.522 -6027.97 20 
-22 -5907.36 97.9674 
1038.03 -6240.09 -5.88601e-015 
1688.53 -6453.69 -6.9775e-015 
668.812 -6444.06 12 
116.308 -5765.17 -5.94587e-015 
2442 -5763.11 149.86 
552.979 -5459.38 -22 
1880.83 -5355.17 20 
186.61 -5683.62 -6.88527e-015 
930.767 -5312.47 -1.25905e-014 
2311.44 -5985.55 -22 
1173.67 -6175.72 -6.9291e-015 
295.564 -5798.75 -6.37215e-015 
1702.09 -6051.06 -9.98517e-015 
1246.85 -5532.81 -1.20861e-014 
1992.25 -6270.76 -9.57326e-015 
2442 -6451.86 96.5008 
2296 -5431.08 -1.67627e-014 
1465.7 -6358.37 -6.75363e-015 
2256.57 -5616.09 -22 
1588.09 -6240.44 -8.13711e-015 
1007.46 -5693 20 
176.391 -6451.86 12 
544.632 -6243.47 -3.8359e-015 
228.971 -6172.28 -3.11557e-015 
78.2683 -6210.19 -2.20357e-015 
932.877 -5670.44 -9.84365e-015 
2322.35 -6451.86 12 
1950.69 -6414.92 -8.35758e-015 
801.226 -6018.86 -6.64064e-015 
1841.99 -5301.4 -1.60172e-014 
2251.93 -5231 117 
523.929 -6165.16 -4.37038e-015 
2258.68 -6279.26 -1.06083e-014 
284.781 -5957.48 -5.0594e-015 
779.774 -5199 -19.3229 
2136.02 -5996.42 -1.21282e-014 
-42.7699 -5636.04 -6.38185e-015 
1527.72 -5829.81 -1.09389e-014 
-22 -6304.83 87.0769 
1605.5 -5568.92 -1.31777e-014 
2191.1 -6425.44 12 
534.692 -5423.72 -1.02607e-014 
2061.65 -6261.45 -22 
851.295 -6205.26 -5.38828e-015 
436.113 -5692.66 -7.77175e-015 
806.164 -5747.44 -22 
740.57 -6299.19 -4.20692e-015 
495.033 -5397.34 -1.03215e-014 
893.27 -6093.59 -6.42476e-015 
646.786 -6301.77 -3.80053e-015 
1646.26 -5607.06 -1.30538e-014 
350.179 -6089.05 -4.26246e-015 
1003.48 -5361.97 20 
1681.26 -5219 81.5166 
826.59 -5873.64 -7.86009e-015 
1884.39 -6287.51 -9.00716e-015 
2260.53 -5901.9 -1.33062e-014 
568.531 -5687.3 20 
2348.48 -5522.98 -1.63137e-014 
2148.91 -6073.19 -1.16312e-014 
1257.84 -5843.94 -9.77709e-015 
1321.52 -5681.44 -1.12427e-014 
1881.37 -6205.57 -9.59091e-015 
653.207 -5592.33 -9.3784e-015 
730.727 -5407.57 -1.11141e-014 
12 -5929.56 149.86 
1924.88 -6419 12 
1956.08 -6063.41 -1.09277e-014 
1622.25 -6158.4 -8.8797e-015 
2195.52 -6351 -9.83528e-015 
698.482 -6309.44 -3.95419e-015 
2082.39 -6021.9 -22 
2380.44 -5307.43 -1.79483e-014 
1151.51 -5308.46 -1.34308e-014 
2167.34 -6350.48 -9.72174e-015 
1821.44 -5474.44 -1.46822e-014 
984.14 -5231 117 
2402.79 -5311.74 -22 
660.679 -6065.24 -5.71151e-015 
1810.01 -6419 12 
1955.81 -5794.55 -1.28618e-014 
1486.94 -5604.57 -1.24509e-014 
1585.64 -5197 34.9031 
1427.48 -5726.59 -22 
1523.38 -6043.78 -22 
1283.1 -5643.05 -1.13885e-014 
1644.32 -6081.39 -9.52974e-015 
321.732 -5568.8 -8.31404e-015 
341.643 -6432.11 12 
729.683 -5897 -7.30034e-015 
2146.23 -6085.43 -1.15335e-014 
660.237 -6247.07 -4.28602e-015 
354.048 -5847.24 -6.21308e-015 
1100.94 -6419 12 
2502.88 -5561.32 -1.6626e-014 
1640.56 -5819.93 -1.14542e-014 
1900.11 -6419 12 
935.485 -6239.73 -5.46907e-015 
623.373 -5577.25 -9.38444e-015 
2442 -5774.82 149.86 
2217.79 -5852.83 -1.34796e-014 
518.014 -6058.27 -22 
1418.61 -5829.92 -1.05108e-014 
2476 -6463.84 58.8116 
567.522 -6020.03 20 
1929.12 -5946.53 -1.16686e-014 
2454 -6232.47 97.3601 
2004.72 -6451.86 5.37468 
1183.87 -5411.17 -1.27724e-014 
1387.05 -6257.39 -7.18482e-015 
530.959 -5227.9 21.0954 
-18.0258 -5871.17 -22 
381.71 -5804.95 -6.65994e-015 
1124.57 -5231 149.86 
2459.06 -6246.71 -22 
1450.81 -6451.86 12 
741.957 -5231 149.86 
2262.29 -5972.31 -1.28119e-014 
2476 -5875.14 158.172 
1074.93 -5583.48 -1.10547e-014 
-22 -5571.42 123.102 
1802.79 -5404.31 -1.51235e-014 
1219.56 -6419 12 
2178.84 -6451.86 12 
514.241 -6309.54 -3.19094e-015 
1630.63 -5454.31 -1.41113e-014 
598.464 -5816.75 -7.40847e-015 
2447.56 -5359.64 116.008 
2035.44 -5413.69 -1.59195e-014 
203.959 -5219 141.331 
563.305 -5689.47 20 
0 -5971.11 132.872 
257.538 -6112.97 -3.71072e-015 
501.089 -6359.61 -2.74118e-015 
-22 -6057.32 39.9598 
1375.46 -6419 12 
1076.43 -5797.67 -9.42457e-015 
95.9965 -6220.41 -2.1924e-015 
614.703 -6259.35 -22 
922.665 -5971 -7.48544e-015 
1873.98 -5528.86 -1.4481e-014 
884.12 -6010.25 -7.03175e-015 
1500.47 -5823.95 -1.08757e-014 
2267.78 -5933.2 -1.31126e-014 
1222.63 -5869.23 -9.44767e-015 
726.131 -6425.61 12 
340.1 -5831.95 -6.28084e-015 
919.045 -6310.33 -4.8565e-015 
817.899 -5244.41 4.59176 
866.054 -5830.04 -8.35095e-015 
607.774 -5587.55 -9.24468e-015 
1032.68 -5538.95 -1.12325e-014 
1981.15 -6357.82 -8.89615e-015 
705.755 -6239.87 -4.52723e-015 
372.671 -6451.86 12 
2151.36 -5756.21 -1.39011e-014 
795.338 -5884.93 -7.65059e-015 
12 -5657.06 145.716 
629.096 -6217.54 -4.38921e-015 
2454 -5943.29 84.2799 
529.671 -5451.11 -1.00269e-014 
2476 -5538.78 71.539 
1307.24 -6072.68 -8.25202e-015 
458.963 -5488.92 -9.46147e-015 
385.708 -5394.4 -9.93588e-015 
518.814 -6269.79 -3.52221e-015 
1546.48 -6322.23 -7.35784e-015 
911.586 -6219.2 -5.52855e-015 
421.791 -5387.89 -1.01227e-014 
1139.42 -5324.55 -22 
531.404 -6285.91 -3.44761e-015 
1069.08 -5690.19 -1.02248e-014 
605.23 -5747.21 -7.9804e-015 
1046.21 -6139.19 -6.68772e-015 
12 -5537.39 129.478 
347.78 -5457.15 -9.29446e-015 
1126.94 -6451.86 12 
811.86 -6451.86 12 
45.5746 -6235.84 -1.85916e-015 
664.734 -6482.58 -2.45914e-015 
12 -6018.71 134.805 
756.47 -5996.87 -6.63499e-015 
198.065 -5606.38 -7.54589e-015 
1439 -6027.46 20 
659.662 -5629.62 -9.10967e-015 
1915.97 -6122.87 -1.0332e-014 
580.558 -6419 12 
110.247 -6353.47 -1.16957e-015 
866.358 -5651.57 -9.72862e-015 
234.411 -5231 133.187 
849.019 -5419.38 -1.14646e-014 
222.64 -5550.93 -8.08049e-015 
2074.9 -6189.69 -1.04932e-014 
1240.37 -5356.69 -1.33931e-014 
1783.18 -6108.23 -9.89885e-015 
1118.51 -5907.15 -8.74497e-015 
567.328 -5687.02 20 
2476 -6281.19 81.1756 
2310.4 -6112.69 -1.20064e-014 
1622.86 -6048.92 -9.68537e-015 
2150.44 -5798.38 -1.35968e-014 
1695.06 -5468.17 -1.42523e-014 
12 -5278.19 117 
1135.24 -5973.19 -8.30576e-015 
1237.32 -6136.44 -7.4853e-015 
277.562 -5319.22 -1.01377e-014 
2280.61 -5917.65 -1.32707e-014 
2056.15 -5231 117 
2081.9 -5231 117 
2454 -5897.94 48.4395 
619.619 -5990.77 -6.12981e-015 
536.587 -5197 17.598 
367.38 -5320.2 -1.04591e-014 
411.685 -5219 55.7947 
1289.22 -5889.07 -9.565e-015 
1499.77 -5907.47 -22 
1207.37 -6065.39 -7.90122e-015 
1237.35 -6417.49 -22 
2311.14 -6025.04 20 
816.626 -5792.27 -8.44863e-015 
2436.7 -5233.79 -4.63562e-015 
1200.4 -6212.85 -6.75508e-015 
1025.95 -6224.88 -5.95309e-015 
971.763 -6109.46 -6.61009e-015 
641.271 -5613.42 -9.16767e-015 
788.574 -6082.44 -6.09617e-015 
1439 -5694.46 20 
1216.8 -5231 145.312 
1355.75 -6045.41 -8.65554e-015 
1234.08 -6451.86 12 
1989.06 -5867.48 -1.24719e-014 
1503.07 -5271.67 -1.49963e-014 
1956.68 -5597.09 -1.42962e-014 
826.027 -6257.95 -4.87555e-015 
571.374 -6149.23 -4.68848e-015 
819.254 -5323.41 -1.2095e-014 
1782.15 -6315.63 -8.37941e-015 
138.469 -5694.7 20 
1464.81 -5591.28 -1.24651e-014 
1208.4 -6115.02 -7.52986e-015 
411.382 -5995.07 -22 
143.14 -5355.53 20 
626.962 -5828.86 -7.42355e-015 
813.699 -6280.35 -4.65176e-015 
1769.44 -6023.83 -1.04571e-014 
1521.67 -5231 117 
1771.18 -6298.21 -8.46075e-015 
1083.34 -5640.72 -1.06533e-014 
236.876 -5700.14 -22 
511.451 -5631.1 -8.53949e-015 
1852.8 -5231 117 
-50 -6434.68 -8.18273 
277.112 -6320.02 -2.12928e-015 
295.18 -5626.39 -7.75029e-015 
1072.9 -6203.41 -6.30797e-015 
1199.22 -5512.01 -1.20648e-014 
2162.42 -5903.26 -1.28958e-014 
1738.38 -6139 -9.49286e-015 
959.649 -6182.53 -6.00719e-015 
1227.51 -5707.84 -1.06886e-014 
114.193 -5689.72 -6.54666e-015 
1765.57 -6003.43 -1.05898e-014 
261.641 -5432.21 -9.17488e-015 
598.433 -6129 -4.95738e-015 
2144.68 -6202.72 -1.06829e-014 
184.476 -6079.67 -3.68273e-015 
124.176 -5219 74.3242 
2139.43 -5471.22 -1.58965e-014 
526.175 -5841.99 -6.92929e-015 
1802.91 -5655.56 -1.32913e-014 
2135.85 -5953.04 -1.24368e-014 
580.026 -5854.89 -7.03695e-015 
1760.53 -6419 12 
2311.83 -5360.44 20 
2442 -6451.86 114.055 
202.977 -6103.78 -3.5632e-015 
1702.43 -6095.37 -9.66421e-015 
10.9325 -5856.76 19.0675 
376.894 -6396.16 -1.93536e-015 
2024.16 -5548.48 -1.49042e-014 
819.228 -5736.72 -8.88728e-015 
1746.76 -6297.85 -8.36239e-015 
1437.14 -6025.04 20 
2065.26 -5784.93 -1.33591e-014 
2286.41 -6247.58 -1.09489e-014 
812.424 -5286.17 -1.23599e-014 
971.052 -5489.19 -1.13792e-014 
2318.17 -5693.44 20 
2313.1 -6027.51 20 
1547.82 -5764.8 -1.15002e-014 
1881.7 -6022.47 20 
296.725 -6175.79 -3.36313e-015 
805.784 -5486.13 -1.07852e-014 
415.165 -6419 12 
2109.93 -5332.88 -1.6774e-014 
1658.95 -6419 12 
1437.83 -5693.44 20 
0 -5810.63 146.486 
1310.75 -5803.1 -1.02873e-014 
1879.53 -5354.3 20 
1182.88 -6299.02 -6.03043e-015 
413.232 -6485.09 -1.38119e-015 
594.596 -6448.79 12 
1965.66 -5991.39 -1.14907e-014 
2454 -5904.37 45.3667 
394.592 -5672.68 -22 
1682.49 -5956.65 -1.06037e-014 
622.692 -5754.71 -22 
1011.8 -5488.65 -1.15369e-014 
15.3745 -5421.55 14.6255 
1836.01 -5802.18 -1.23492e-014 
1800.58 -6419 12 
470.877 -6382.21 -2.43691e-015 
1444.86 -5359.04 20 
706.122 -5523.38 -1.01196e-014 
865.058 -5785.02 -8.69427e-015 
2396.17 -5345.12 -22 
612.996 -6476.45 -2.28977e-015 
1457.86 -6109.2 -8.58787e-015 
1760.24 -5884.41 -1.14444e-014 
969.46 -5231 117 
2004.09 -5952.58 -1.19241e-014 
1508.84 -5420.21 -1.39132e-014 
92.153 -5805.54 -5.52933e-015 
666.731 -5382.25 -1.10745e-014 
2106.88 -5772.91 -1.36077e-014 
1244.4 -5972.62 -8.75382e-015 
2286.96 -5931.91 -1.31939e-014 
2235.37 -5377.22 -1.69213e-014 
2400.07 -6299.86 -1.10481e-014 
2192.68 -5503.94 -1.586e-014 
-22 -5596.58 100.002 
516.112 -5969.96 -5.87263e-015 
115.142 -6385.43 -9.31666e-016 
2476 -5439.62 43.0738 
958.99 -5264.72 -1.30614e-014 
887.111 -5624.21 -1.0021e-014 
1171.96 -5588.63 -1.13814e-014 
1720.49 -6218.48 -8.83847e-015 
713.413 -6422.25 -22 
27.5497 -5373.96 2.45034 
-22 -6316.62 41.6028 
1874.26 -6228.69 -9.39327e-015 
2476.68 -5357.12 -1.79555e-014 
1102.21 -5231 149.86 
1431.07 -5452.18 -1.33853e-014 
725.436 -5906.05 -7.2139e-015 
1137.14 -5515.03 -1.18078e-014 
765.53 -5431.86 -1.1056e-014 
1389.1 -5926.14 -9.68107e-015 
1678.44 -6194.89 -8.84095e-015 
1661.45 -5934.96 -1.06823e-014 
2162.04 -6167.43 -1.1008e-014 
2013.58 -6222.17 -1.00099e-014 
1090.65 -5494.75 -1.17875e-014 
232.591 -5320.92 -9.95831e-015 
1149.74 -5542.93 -1.16435e-014 
634.608 -5243.29 5.70859 
263.717 -5707.32 -6.9805e-015 
2422.28 -5486.12 -22 
794.029 -5624.89 -9.65318e-015 
1121.67 -5479.18 -1.20234e-014 
1846.78 -5659.36 -1.3429e-014 
153.644 -5682.35 -6.76657e-015 
1874.3 -6022.47 20 
2037.24 -6171.14 -1.04737e-014 
182.93 -5478.99 -8.50959e-015 
2144.22 -6049.53 -1.17816e-014 
1430.31 -5826.79 -1.05798e-014 
342.944 -5598.82 -8.15804e-015 
312.949 -5632.94 -7.76743e-015 
2043.67 -5231 149.385 
243.087 -6318.07 -2.00403e-015 
2398.72 -5876.46 -1.40306e-014 
267.59 -5752.52 -6.63298e-015 
12 -6319.87 130.834 
2442 -6005.07 138.252 
1544.18 -5665.43 -1.22234e-014 
866.71 -5628.37 -9.90893e-015 
1492.01 -6320.17 -7.1477e-015 
1781.22 -5231 137.723 
2175.21 -6224.28 -22 
1005.04 -5694.86 20 
1878.52 -5694.97 20 
1990.03 -5846.26 -1.26271e-014 
1042.74 -5508.78 -1.14997e-014 
1699.79 -5781.11 -1.19744e-014 
2395.01 -5539.76 -22 
1337.57 -6003.97 -8.89527e-015 
1837.74 -6347.95 -8.37335e-015 
2096.78 -5426.95 -1.60546e-014 
1015.01 -5834.54 -22 
1978.94 -5815.76 -1.28011e-014 
983.922 -5556.77 -1.09138e-014 
1163.21 -5570.43 -1.14861e-014 
2199.21 -5540.42 -1.56263e-014 
1706.84 -5946.5 -1.07745e-014 
1594.32 -6251.83 -22 
860.257 -6310.6 -4.61115e-015 
2199.92 -5865.05 -1.33186e-014 
2442 -5731.49 117 
710.852 -6182.28 -4.99639e-015 
68.3431 -5476.82 -8.09823e-015 
2069.88 -5223.25 -1.28536e-015 
-22 -5215.98 60.058 
1390.44 -5579.29 -1.22755e-014 
1540.07 -5691.76 -1.20119e-014 
219.872 -6304.17 -2.01926e-015 
1874.54 -5693 20 
2043.13 -5633.66 -1.43559e-014 
1380.33 -5383.4 -1.37095e-014 
524.266 -6042.87 -5.3328e-015 
1568.74 -5670.85 -1.22794e-014 
12 -5773.07 139.162 
1722.26 -5526.78 -1.39243e-014 
2100.95 -5553.16 -1.51596e-014 
808.026 -6145.28 -5.68141e-015 
1691.84 -5514.82 -1.38974e-014 
350.94 -5812.71 -6.47727e-015 
2369.59 -6001.09 -1.30283e-014 
2316.04 -6020.14 20 
1378.33 -6244.71 -7.24446e-015 
1474 -5838.95 -1.06607e-014 
1661.46 -6284.18 -8.11571e-015 
716.069 -6048.07 -6.07152e-015 
1799.38 -5874.77 -22 
2247.66 -5660.72 -1.49598e-014 
1781.83 -6326.68 -8.29773e-015 
1827.71 -5231 123.265 
1527.9 -5570.13 -1.28669e-014 
1510.31 -6233.26 -7.86846e-015 
2341.83 -6086.46 -1.231e-014 
656.642 -5923.94 -6.8055e-015 
1629.2 -6451.86 12 
437.117 -6287.88 -3.04476e-015 
1005.53 -6027.7 20 
421.464 -6194.82 -3.71916e-015 
1808.51 -5886.56 -1.16175e-014 
1036.14 -5575.56 -1.09685e-014 
593.768 -6483.47 -2.15359e-015 
197.38 -6300.59 -1.95478e-015 
714.134 -5688.9 -8.84905e-015 
1347.19 -5531.71 -1.24725e-014 
808.505 -5638.33 -9.60421e-015 
1444.54 -5877.68 -1.02579e-014 
349.004 -5333.3 -1.02873e-014 
855.247 -6162.32 -5.73939e-015 
12 -6033.8 137.98 
694.401 -5715.78 -8.5635e-015 
498.664 -6419.05 12 
926.629 -6339.19 -22 
623.925 -6199.45 -4.50933e-015 
1853.3 -5231 117 
2182.92 -5794.48 -1.37518e-014 
1589.61 -5770.34 -1.16227e-014 
1763.88 -5815.24 -1.1972e-014 
381.586 -6191.03 -3.58717e-015 
2476 -6140.92 111.428 
2035.37 -5460.58 -1.55815e-014 
452.078 -5305.33 -1.08891e-014 
855.182 -5597.92 -22 
1151.14 -5762.77 -9.98518e-015 
140.741 -5687.08 20 
2476 -6417.61 36.2217 
557.701 -5569.06 -9.20127e-015 
1378.44 -6072.18 -8.54524e-015 
811.996 -5901.42 -7.58865e-015 
1150.04 -5620.3 -1.10592e-014 
2344.87 -5872.15 -1.38342e-014 
2476 -5980.35 116.259 
294.385 -5513.5 -8.64627e-015 
280.345 -5641.9 -7.56804e-015 
790.817 -5219 36.4 
2338.01 -5229.09 19.913 
1194.8 -5770.8 -1.0089e-014 
2037.63 -5308.6 -1.66834e-014 
1259.1 -5790.49 -1.01823e-014 
1206.42 -5235.96 13.0368 
1650.5 -6186.12 -8.79187e-015 
2239.41 -5829.54 -1.37352e-014 
2442 -5855.31 117 
586.646 -5231 148.97 
171.122 -5596.09 -7.52871e-015 
2145.1 -5219 2.78735 
2477.2 -5997.99 -22 
-22 -5807.35 74.3459 
0 -6427.85 115.404 
914.711 -5231 117 
-22 -5528.56 35.7585 
802.395 -6048.46 -6.41689e-015 
342.825 -5670.12 -7.58684e-015 
293.907 -6262.37 -2.66021e-015 
2146.35 -6100.38 -1.14273e-014 
1847.43 -5197 94.4571 
564.565 -5687.83 20 
1325.65 -6029.37 -8.65459e-015 
0 -5757.25 101.149 
12 -5638.26 117 
1502.61 -6235.86 -7.81729e-015 
1805.51 -5359.61 -22 
0 -5667.2 68.9014 
167.309 -5219 58.3554 
2151.23 -6073.54 -1.16378e-014 
392.666 -5950.05 -5.54147e-015 
38.6451 -6390.78 -5.67773e-016 
1784.48 -6474.39 -7.22881e-015 
1496.84 -5389.51 -1.40967e-014 
1245.9 -5632.13 -22 
1285.1 -6302.52 -6.4271e-015 
2173.1 -5354.8 -1.6851e-014 
377.181 -6078.9 -22 
885.148 -5641.89 -9.87694e-015 
1509.07 -5750.6 -1.14538e-014 
1438.17 -6026.83 20 
1681.25 -5802.22 -1.1745e-014 
2476 -5630.8 118.536 
1747.19 -5610.55 -1.34087e-014 
1866.78 -5900.1 -1.17531e-014 
1766.08 -5917.57 -1.12212e-014 
2118.04 -6492.51 -22 
1408.1 -6434.08 12 
1813.23 -5373.41 -1.5387e-014 
